# .PCD v0.7 - Point Cloud Data file format
VERSION 0.7
FIELDS x y z rgb
SIZE 4 4 4 4
TYPE F F F F
COUNT 1 1 1 1
WIDTH 692
HEIGHT 1
VIEWPOINT 0 0 0 1 0 0 0
POINTS 692
DATA ascii
0.25446942 -0.55897772 0.70138419 1.1164145e-41
0.25893223 -0.5589686 0.70039755 1.1164145e-41
0.26566878 -0.5589546 0.7004106 1.1164145e-41
0.27253935 -0.55894035 0.70042223 1.1164145e-41
0.27950734 -0.55892599 0.7003243 1.1164145e-41
0.28643161 -0.55891162 0.70027041 1.1164145e-41
0.29102039 -0.55890214 0.70039499 1.1164145e-41
0.29432607 -0.55889535 0.70055258 1.1164145e-41
0.29859489 -0.55888647 0.70028108 1.1164145e-41
0.33758068 -0.53572071 0.70278811 1.1164145e-41
0.25511873 -0.52480626 0.70141727 1.1164145e-41
0.5218811 -0.32556593 0.70035833 2.8599577e-39
0.53782606 -0.32657474 0.70163167 2.7763856e-39
0.52186286 -0.32063773 0.7011292 2.8599577e-39
0.52189064 -0.31397507 0.70054054 2.8599577e-39
0.52303308 -0.30700332 0.70006299 2.8599577e-39
0.52417737 -0.30267918 0.70040578 2.8599577e-39
0.52506298 -0.29928902 0.70026541 2.8599577e-39
0.52664018 -0.29325855 0.70024651 2.8599577e-39
0.52845544 -0.28635734 0.70033437 8.0217779e-39
0.53023404 -0.27941132 0.70047784 1.1708845e-38
0.53344995 -0.25914484 0.70076603 1.1708845e-38
0.53435117 -0.25194901 0.70005405 1.1708845e-38
0.53530908 -0.24532279 0.70041186 1.1708845e-38
0.53613961 -0.23825049 0.7003864 1.1708845e-38
0.53697062 -0.23126122 0.70036972 1.1708845e-38
0.53783453 -0.22442614 0.70029962 1.1708845e-38
0.53878093 -0.21722074 0.70025748 1.0602509e-38
0.53972399 -0.2102174 0.7003513 7.5611641e-39
0.5406155 -0.20331262 0.70020366 5.2566573e-39
0.25858328 -0.55896908 0.7071768 1.1164145e-41
0.26560491 -0.55895454 0.70740324 1.1164145e-41
0.27253807 -0.55894011 0.70729578 1.1164145e-41
0.27947292 -0.55892593 0.70725095 1.1164145e-41
0.28649139 -0.55891138 0.70716023 1.1164145e-41
0.29102814 -0.55890197 0.70713496 1.1164145e-41
0.29856244 -0.55888641 0.70720482 1.1164145e-41
0.2793951 0.56107336 0.71432644 4.1326169e-39
0.2932587 0.56110203 0.7142188 4.1326169e-39
0.29912111 0.56111419 0.71398956 4.1326169e-39
0.53190762 -0.33052051 0.72278726 2.8599577e-39
0.5315094 -0.283683 0.72329354 2.7903986e-39
0.53485066 -0.26569608 0.72115338 2.7903986e-39
0.53680158 -0.25183687 0.72139418 2.7903986e-39
0.53831846 -0.24224234 0.72429001 2.7903986e-39
0.55639291 -0.24473661 0.72068977 5.1660003e-39
0.53863901 -0.23745681 0.72168589 2.7903986e-39
0.53939074 -0.23095877 0.72086024 2.7903986e-39
0.54027939 -0.22449072 0.72126389 2.7903986e-39
0.54116732 -0.21711235 0.72071838 2.7903986e-39
0.54207498 -0.21074723 0.72123498 2.7903986e-39
0.54284185 -0.20372249 0.72103065 2.7903986e-39
0.54358125 -0.19659923 0.72104192 2.7903986e-39
0.5442608 -0.19017899 0.72121483 2.7903986e-39
0.54477578 -0.1835905 0.72036976 2.7903986e-39
0.54526651 -0.18077585 0.72221977 2.7903986e-39
0.54605305 -0.1758526 0.72110301 2.7903986e-39
0.547755 -0.16911513 0.72176903 2.7903986e-39
0.55019933 -0.16325565 0.72172672 2.8804461e-39
0.55402893 -0.16024689 0.72141427 2.8718211e-39
0.55728775 -0.15826833 0.72246373 2.86571e-39
0.56026489 -0.15663522 0.7236551 2.8599577e-39
0.61462981 -0.04328157 0.72208607 1.5949844e-38
0.62392354 -0.045262121 0.72225237 4.8894064e-39
0.48796356 -0.041366681 0.72366792 7.3486404e-39
0.51446724 -0.0079050269 0.7202822 4.5126155e-39
0.53546953 0.0027760174 0.71868914 4.8894064e-39
0.4136773 0.21397731 0.72121346 3.8740676e-39
0.41465461 0.22119024 0.72025442 5.7197612e-39
0.48745057 0.23904997 0.72264624 6.4410418e-39
0.48388338 0.25324824 0.71837813 6.3488461e-39
0.24749376 0.56100732 0.72179353 4.1326169e-39
0.25182539 0.56101632 0.72093999 4.1326169e-39
0.25872275 0.56103045 0.72106534 4.1326169e-39
0.26563019 0.56104481 0.72100294 4.1326169e-39
0.27261531 0.5610593 0.72108519 4.1326169e-39
0.27945918 0.56107342 0.72110856 4.1326169e-39
0.28630507 0.56108767 0.72100264 4.1326169e-39
0.29324153 0.56110197 0.72109205 4.1326169e-39
0.29892161 0.56111372 0.72095418 4.1326169e-39
0.31111562 0.57534957 0.71798569 4.1326169e-39
0.29339683 -0.62129951 0.73107874 1.1164145e-41
0.26562813 -0.55895406 0.72800916 1.1164145e-41
0.27250901 -0.55893987 0.72801507 1.1164145e-41
0.27941316 -0.55892557 0.72797298 1.1164145e-41
0.28632209 -0.55891132 0.72787261 1.1164145e-41
0.29079455 -0.55890203 0.72802621 1.1164145e-41
0.29424262 -0.55889487 0.72791517 1.1164145e-41
0.29864389 -0.55888575 0.72777677 1.1164145e-41
0.52708644 -0.32578012 0.73050165 1.2918683e-39
0.52437848 -0.32150304 0.7252143 1.4762637e-39
0.52587551 -0.32071936 0.72861576 2.2142113e-39
0.52572221 -0.31413034 0.72779346 2.7799786e-39
0.52670121 -0.30677143 0.72768331 2.7903986e-39
0.52821958 -0.29984677 0.72803438 2.7903986e-39
0.52975965 -0.29324928 0.72790325 2.7903986e-39
0.53088552 -0.28822115 0.72749966 2.7903986e-39
0.53169501 -0.28527594 0.72836864 2.7903986e-39
0.53285688 -0.27967238 0.72809464 2.7903986e-39
0.53424025 -0.27229416 0.72799718 2.7903986e-39
0.53547955 -0.26558742 0.72784477 2.7903986e-39
0.57832211 -0.26834801 0.72582364 5.8113543e-39
0.53651571 -0.25868392 0.72754431 2.7900385e-39
0.53747427 -0.25182912 0.72773111 2.7903986e-39
0.53793555 -0.24651428 0.72572511 2.7903986e-39
0.53862184 -0.24469331 0.72904629 2.7903986e-39
0.53936028 -0.23796301 0.72776222 2.7903986e-39
0.54027003 -0.2313448 0.72795177 2.7903986e-39
0.54118997 -0.22452578 0.72804022 2.7903986e-39
0.54210573 -0.21741207 0.72792399 2.7903986e-39
0.53417999 -0.21024078 0.72474128 7.2035247e-39
0.54303205 -0.21028814 0.72780043 2.7903986e-39
0.54388016 -0.20331079 0.72776151 2.7903986e-39
0.54461831 -0.19691113 0.72822279 2.7903986e-39
0.54515105 -0.19343589 0.73011345 2.7903986e-39
0.54490376 -0.19075452 0.72613782 2.7903986e-39
0.54533452 -0.18890923 0.72830462 2.7903986e-39
0.54584277 -0.18277346 0.72814393 2.7903986e-39
0.54659951 -0.17596024 0.72807044 2.7903986e-39
0.54920775 -0.16897307 0.72752321 2.9769549e-39
0.55251604 -0.1662074 0.72825044 3.0702309e-39
0.55106282 -0.16490115 0.72525769 3.0702309e-39
0.55488956 -0.16250846 0.72639596 3.0702309e-39
0.55838072 -0.15797487 0.72829342 3.2402505e-39
0.56182474 -0.15659544 0.72774017 3.1430242e-39
0.5673241 -0.15594184 0.73070061 3.32131e-39
0.61463326 -0.10689524 0.72744089 1.9821696e-38
0.58854634 -0.0033034817 0.73020029 1.0604028e-38
0.60405636 0.0015541413 0.72619122 1.825437e-38
0.4402605 0.18348397 0.729159 4.6025522e-39
0.41338363 0.25753406 0.73083889 5.9807867e-39
0.3190338 0.5469566 0.72786409 4.1326169e-39
0.25528729 0.55873889 0.72654003 4.1326169e-39
0.24629766 0.56100482 0.7283662 4.1326169e-39
0.25188541 0.56101638 0.72779113 4.1326169e-39
0.25877202 0.56103063 0.72795254 4.1326169e-39
0.26563573 0.56104475 0.72787166 4.1326169e-39
0.27248019 0.56105888 0.72802198 4.1326169e-39
0.27945462 0.56107336 0.72793895 4.1326169e-39
0.28633139 0.56108755 0.72794914 4.1326169e-39
0.29309294 0.56110162 0.72796285 4.1326169e-39
0.29872605 0.56111318 0.72781533 4.1326169e-39
0.26321536 0.57883698 0.72456801 4.1326169e-39
0.26718256 -0.55895078 0.73369652 1.1164145e-41
0.27256557 -0.55893964 0.73484308 1.1164145e-41
0.27952471 -0.55892521 0.73482227 1.1164145e-41
0.2863844 -0.55891097 0.73477745 1.1164145e-41
0.29070339 -0.55890203 0.73496556 1.1164145e-41
0.29414132 -0.55886918 0.73470193 1.1164145e-41
0.29865175 -0.55888557 0.7344557 1.1164145e-41
0.53551364 -0.33414376 0.73725921 2.9521561e-39
0.57852179 -0.3347483 0.73584592 5.1660003e-39
0.52872711 -0.32756251 0.73503888 1.660662e-39
0.52768576 -0.32062039 0.7354396 2.4911668e-39
0.52736276 -0.31383663 0.73448652 2.7796198e-39
0.52762872 -0.30737007 0.73449922 2.7850092e-39
0.5288226 -0.30032593 0.73513913 2.7828526e-39
0.53033549 -0.29320347 0.73473185 2.7842904e-39
0.53124589 -0.28900963 0.73433053 2.7868057e-39
0.5319382 -0.28592417 0.73482311 2.7832128e-39
0.53333491 -0.27942392 0.73510933 2.7821352e-39
0.53464228 -0.27247185 0.73524916 2.7814163e-39
0.53880084 -0.27213538 0.73376608 4.704648e-39
0.53560936 -0.26571873 0.73461765 2.7839316e-39
0.56334513 -0.26648584 0.73808646 5.3503888e-39
0.53651953 -0.25896221 0.73483527 2.7839316e-39
0.53761423 -0.25229141 0.73482782 2.7842904e-39
0.53824508 -0.24891056 0.7315222 2.7903986e-39
0.53881884 -0.2449809 0.73535961 2.782854e-39
0.53997236 -0.23808898 0.73440176 2.7857281e-39
0.54103816 -0.23126592 0.73515248 2.7839316e-39
0.54188925 -0.2239787 0.73440284 2.786447e-39
0.54276621 -0.21733809 0.73555648 2.7846491e-39
0.54353344 -0.21041298 0.73445153 2.788242e-39
0.54436409 -0.2036569 0.73500478 2.7864456e-39
0.57237405 -0.20569938 0.73339045 2.952519e-39
0.54490203 -0.1989076 0.73466438 2.7882434e-39
0.54530144 -0.1957482 0.7351709 2.7875246e-39
0.64908928 -0.19370115 0.73631096 5.2581945e-39
0.54594058 -0.18951744 0.73465371 2.7878833e-39
0.54658473 -0.18294702 0.7349357 2.7882434e-39
0.54784644 -0.17572454 0.73540044 2.8797216e-39
0.55010206 -0.16976954 0.73491907 2.7904014e-39
0.55282998 -0.16729306 0.73730075 3.0673569e-39
0.55129337 -0.16523659 0.73327601 2.7903986e-39
0.55450839 -0.16202508 0.73561555 2.9769563e-39
0.55683547 -0.15829706 0.73486435 3.1487751e-39
0.56247491 -0.15749198 0.73248982 3.32131e-39
0.56952393 -0.15678029 0.73334503 3.32131e-39
0.60092562 -0.15320268 0.73249263 3.5057082e-39
0.56596893 -0.12376189 0.73301715 2.8599577e-39
0.50789118 -0.072021902 0.73570293 9.219563e-39
0.53344399 -0.038226176 0.73665774 1.2447929e-38
0.58188111 -0.040572416 0.7356115 5.2581847e-39
0.24502122 0.56100202 0.73515087 4.1326169e-39
0.25180873 0.56101602 0.73474002 4.1326169e-39
0.25875708 0.56103039 0.73486012 4.1326169e-39
0.26559266 0.56104457 0.73476428 4.1326169e-39
0.27253819 0.561059 0.73493189 4.1326169e-39
0.27946153 0.56107324 0.7349413 4.1326169e-39
0.28636482 0.56108755 0.73478889 4.1326169e-39
0.29330122 0.56110191 0.73482007 4.1326169e-39
0.29902878 0.56111366 0.73464519 4.1326169e-39
0.27391344 -0.55893666 0.74060166 1.1164145e-41
0.27945638 -0.55892515 0.74178284 1.1164145e-41
0.28626326 -0.5589112 0.74179339 1.1164145e-41
0.29062223 -0.55890203 0.74170589 1.1164145e-41
0.29404423 -0.55889499 0.7416988 1.1164145e-41
0.29862028 -0.55888551 0.74164587 1.1164145e-41
0.28166249 -0.52674055 0.74380821 1.1164145e-41
0.53585339 -0.33368215 0.73918116 2.9521561e-39
0.54035151 -0.33760458 0.73834044 2.9521561e-39
0.52821875 -0.32622507 0.74228531 2.1223744e-39
0.53139377 -0.32979375 0.7400133 2.9521561e-39
0.52818578 -0.32091865 0.74166191 2.3986082e-39
0.52880388 -0.3138268 0.74187291 2.8599577e-39
0.52927023 -0.30710176 0.74141604 2.8599577e-39
0.5299443 -0.3002207 0.74180669 2.8599577e-39
0.53071409 -0.2941201 0.74103218 2.8599577e-39
0.53165418 -0.29214403 0.74357098 2.8599577e-39
0.53248978 -0.28630778 0.74180233 2.8599577e-39
0.53380108 -0.27941474 0.74155557 2.8599577e-39
0.53483337 -0.27266899 0.7422933 2.8599577e-39
0.53560299 -0.26576436 0.74181497 2.8599577e-39
0.53648615 -0.25879315 0.74189568 2.8599577e-39
0.53760719 -0.2519328 0.74168926 2.8599577e-39
0.53881812 -0.24525099 0.74224716 2.8599577e-39
0.54009891 -0.23803854 0.74170613 2.8599577e-39
0.54136825 -0.23095098 0.74176466 2.8599577e-39
0.5423339 -0.2241362 0.74146551 2.8599577e-39
0.54297113 -0.21759984 0.74197054 2.7691998e-39
0.54427332 -0.21033265 0.74173826 2.8603164e-39
0.5447728 -0.20446996 0.73997432 2.8606751e-39
0.54543316 -0.20288609 0.74279678 2.8599577e-39
0.59153837 -0.20102109 0.73870987 1.2349931e-38
0.5459792 -0.1965467 0.74194735 2.8603164e-39
0.54666519 -0.19004449 0.74191189 2.8606765e-39
0.54771388 -0.18264791 0.74206871 2.8603164e-39
0.54953331 -0.17636834 0.74094695 2.955033e-39
0.55243385 -0.1732457 0.74127066 2.8599577e-39
0.55168295 -0.17126857 0.73867142 3.1505702e-39
0.55469787 -0.16870907 0.74076545 2.9571882e-39
0.55734462 -0.16341536 0.74010777 3.0569326e-39
0.56026834 -0.1607511 0.74248117 2.8639107e-39
0.56210947 -0.15711051 0.74201775 2.8675065e-39
0.24032411 0.5609923 0.74222445 4.1326169e-39
0.24496457 0.56100184 0.74185997 4.1326169e-39
0.25187418 0.56101608 0.74164027 4.1326169e-39
0.25877422 0.56103039 0.74184704 4.1326169e-39
0.26571402 0.56104481 0.7416153 4.1326169e-39
0.27255344 0.56105882 0.74177694 4.1326169e-39
0.27942488 0.56107312 0.74180561 4.1326169e-39
0.2863127 0.56108737 0.74179757 4.1326169e-39
0.29320079 0.56110168 0.74165916 4.1326169e-39
0.29896325 0.56111348 0.74169886 4.1326169e-39
0.27427474 0.56694031 0.74464673 4.1326169e-39
0.28052795 -0.55892289 0.74771166 1.1164145e-41
0.2863625 -0.55891085 0.74875063 1.1164145e-41
0.29076323 -0.55890167 0.74853861 1.1164145e-41
0.29424232 -0.5588944 0.74870527 1.1164145e-41
0.29868293 -0.55888528 0.74851841 1.1164145e-41
0.53394854 -0.33219171 0.7496143 2.8599577e-39
0.53864682 -0.33663541 0.74967593 2.8599577e-39
0.56345105 -0.33236319 0.7503112 4.8890449e-39
0.53011411 -0.32655609 0.74925131 2.1220143e-39
0.53216231 -0.3301858 0.74949181 2.8599577e-39
0.56759524 -0.32720113 0.74900377 5.0737949e-39
0.52918017 -0.32091832 0.74835598 2.0294543e-39
0.57012415 -0.32021865 0.74955922 5.0737892e-39
0.52990496 -0.31403726 0.74879992 2.8599577e-39
0.57118249 -0.31490576 0.75064766 5.1659947e-39
0.57414043 -0.31148857 0.74959457 5.0737836e-39
0.53053427 -0.30726227 0.74879575 2.8599577e-39
0.53143322 -0.30514279 0.75152791 2.8599577e-39
0.53085607 -0.30082133 0.74742532 2.8599577e-39
0.53169465 -0.29937997 0.75006109 2.8599577e-39
0.57542741 -0.30171221 0.75043428 4.981595e-39
0.53244388 -0.29310036 0.74896413 2.8599577e-39
0.53337622 -0.2866613 0.74887311 2.8599577e-39
0.57637954 -0.28715557 0.75165075 5.1659989e-39
0.53445905 -0.27914155 0.74844766 2.8599577e-39
0.53535706 -0.27232158 0.74905396 2.8599577e-39
0.57840472 -0.27087376 0.75166988 5.2581973e-39
0.50366741 -0.2631157 0.75103223 2.7864456e-39
0.53626198 -0.26525944 0.74872243 2.8599591e-39
0.5783754 -0.265506 0.75170267 5.2581973e-39
0.58284849 -0.26340705 0.74900937 5.8113557e-39
0.537148 -0.2588124 0.7486428 2.8599577e-39
0.57835019 -0.26090547 0.75173068 5.2581973e-39
0.58222353 -0.2592524 0.74970388 5.7191615e-39
0.53795701 -0.25300568 0.74763095 2.8599577e-39
0.53865027 -0.25050333 0.74945951 2.8599577e-39
0.54544759 -0.24863021 0.74932665 5.0738047e-39
0.58190799 -0.25192535 0.75119895 5.3503888e-39
0.53988302 -0.24454647 0.74889332 2.8599591e-39
0.58242154 -0.24732079 0.75176901 5.2581973e-39
0.54069877 -0.23823124 0.74873722 2.8599577e-39
0.58418953 -0.23844357 0.75209546 5.1663618e-39
0.54203141 -0.23093499 0.74887305 2.8599577e-39
0.58856052 -0.2291431 0.7495665 5.7191517e-39
0.54341322 -0.22419643 0.74855107 2.8599577e-39
0.54510546 -0.22091344 0.75112599 2.8599577e-39
0.58773613 -0.22569668 0.75047261 5.6269658e-39
0.54418898 -0.21720183 0.7474609 2.8599577e-39
0.5455479 -0.21640687 0.75060052 2.8599577e-39
0.58414733 -0.21952127 0.74728024 8.8519716e-39
0.59106064 -0.21660633 0.74911296 6.1801214e-39
0.54470026 -0.21101809 0.74655426 2.8599577e-39
0.54601836 -0.21044634 0.74988842 2.8599577e-39
0.58891499 -0.21263036 0.75146288 5.2581931e-39
0.54652005 -0.20351665 0.74875635 2.8599577e-39
0.59237194 -0.20198543 0.74996817 5.8113515e-39
0.59431124 -0.20429304 0.74785203 6.6410855e-39
0.54759204 -0.1964684 0.74932224 2.8599577e-39
0.56626332 -0.19328022 0.74902815 3.1365544e-39
0.54854214 -0.18926911 0.74847084 2.8599577e-39
0.54990578 -0.1829671 0.74858052 2.8599591e-39
0.55211627 -0.18042915 0.75201356 2.8599577e-39
0.55078375 -0.17667654 0.74784762 2.8599591e-39
0.55257475 -0.17558149 0.75082386 2.9521575e-39
0.55145413 -0.17139752 0.74705791 2.8599577e-39
0.55337918 -0.16892181 0.74999726 2.9521575e-39
0.55609995 -0.16267751 0.75022703 2.8599591e-39
0.5606966 -0.1598621 0.74889809 2.8599577e-39
0.56344306 -0.15697305 0.74916619 3.1369145e-39
0.56823266 -0.15618417 0.75010931 3.6901065e-39
0.51711845 -0.14593248 0.74814212 3.4142287e-39
0.58499086 -0.031365208 0.74827349 5.9031842e-39
0.4887847 0.012543324 0.750911 1.3460199e-38
0.44090098 0.22278306 0.75165242 6.6247114e-39
0.23923603 0.56098992 0.74891829 4.1326169e-39
0.24499419 0.56100178 0.74876785 4.1326169e-39
0.25189927 0.56101602 0.74863994 4.1326169e-39
0.2587904 0.56103039 0.74872828 4.1326169e-39
0.26567575 0.56104469 0.74857467 4.1326169e-39
0.27266297 0.56105906 0.74859118 4.1326169e-39
0.27954298 0.56107324 0.74857181 4.1326169e-39
0.28624639 0.56108707 0.74870646 4.1326169e-39
0.29322267 0.5610975 0.74874055 4.1326169e-39
0.2989471 0.56111336 0.74865717 4.1326169e-39
0.27323067 0.60711002 0.7519958 4.1326169e-39
0.28721568 -0.55890888 0.75471246 1.1164145e-41
0.29054108 -0.55890197 0.75558829 1.1164145e-41
0.29403618 -0.55889469 0.75564927 1.1164145e-41
0.29853365 -0.5588854 0.7554729 1.1164145e-41
0.53343737 -0.35495418 0.75771916 4.7972066e-39
0.5362519 -0.33368018 0.75483942 2.3064112e-39
0.54085416 -0.33400002 0.75763881 3.5971514e-39
0.55753928 -0.33219844 0.75483072 5.1659989e-39
0.53480291 -0.32764137 0.75500464 2.0294585e-39
0.54175818 -0.32790065 0.75780147 2.9521435e-39
0.55060422 -0.32486647 0.75718951 4.4284156e-39
0.5553807 -0.32748374 0.75608557 4.8894064e-39
0.56074649 -0.32688531 0.75417691 5.1660003e-39
0.52001262 -0.32030192 0.75288773 5.1660003e-39
0.5307166 -0.320804 0.75239998 2.2142127e-39
0.5346278 -0.32086563 0.75588083 3.5979067e-39
0.54219764 -0.32080472 0.75823492 4.3354955e-39
0.54916137 -0.32069471 0.75794452 4.8894078e-39
0.55573303 -0.32081795 0.75691557 5.0738019e-39
0.56192094 -0.32021931 0.75510556 5.1660017e-39
0.53081185 -0.31500566 0.75228405 2.8599577e-39
0.53389758 -0.31396273 0.75633383 3.5979053e-39
0.54060519 -0.31476235 0.75873274 4.7972066e-39
0.54903781 -0.31581065 0.75863528 5.0738019e-39
0.55498308 -0.313721 0.75810331 5.0738019e-39
0.56223553 -0.31402794 0.75626105 5.0741648e-39
0.5678556 -0.3113786 0.75441223 5.2581959e-39
0.52124262 -0.30688214 0.75424212 3.6889869e-39
0.53337699 -0.30703992 0.75601703 3.0447175e-39
0.55681854 -0.30821276 0.75868171 5.0738019e-39
0.56211793 -0.30734247 0.75752407 5.0741662e-39
0.56812346 -0.30652195 0.75508469 5.1660017e-39
0.53372556 -0.30015528 0.75559652 2.8599591e-39
0.55787218 -0.2967487 0.75897723 5.1660003e-39
0.56178731 -0.3003948 0.75789988 5.1660003e-39
0.5677532 -0.30043316 0.75566512 5.1663618e-39
0.57305843 -0.29806125 0.75309551 5.1660017e-39
0.53500152 -0.29335389 0.75588286 3.0447161e-39
0.55793816 -0.29305449 0.75890177 5.1660003e-39
0.56178582 -0.2933462 0.75777596 5.1660003e-39
0.56900084 -0.29329598 0.75539476 5.1660017e-39
0.53594136 -0.28633788 0.75512344 3.2291129e-39
0.539011 -0.28541493 0.75810444 3.4135098e-39
0.55805981 -0.28640431 0.7587626 5.1660003e-39
0.56223327 -0.28670275 0.75751805 5.1660003e-39
0.56870955 -0.28619954 0.75554812 5.1660003e-39
0.57510108 -0.28416729 0.75308168 5.2581959e-39
0.53648347 -0.27971888 0.7539109 3.3213114e-39
0.53985834 -0.27955529 0.75735074 3.4135098e-39
0.55814737 -0.27898559 0.75866246 5.0738047e-39
0.56216466 -0.2796098 0.75747061 5.1660003e-39
0.5692004 -0.27943179 0.75533086 5.1660003e-39
0.57456362 -0.27930772 0.75368321 5.1660017e-39
0.53709948 -0.27307653 0.75382262 3.1365558e-39
0.53999007 -0.27301005 0.75719464 3.4131497e-39
0.55695021 -0.2723349 0.75878048 5.0738019e-39
0.56191844 -0.27242246 0.75762504 5.1660003e-39
0.5686425 -0.27255934 0.75562352 5.1660003e-39
0.57440197 -0.27237487 0.75386435 5.1660017e-39
0.53731513 -0.26662627 0.75291222 3.136553e-39
0.53984869 -0.26585037 0.75622767 3.136553e-39
0.5573141 -0.26567119 0.75861424 5.0738019e-39
0.56218648 -0.26567012 0.7575714 5.1660003e-39
0.56890392 -0.26566482 0.75566483 5.1660003e-39
0.57421267 -0.26543158 0.75407612 5.1660017e-39
0.53804606 -0.26034239 0.75268763 3.136553e-39
0.54044306 -0.25841996 0.75595689 3.0443531e-39
0.55711818 -0.25899428 0.7585879 5.0738033e-39
0.56189412 -0.25890961 0.75765264 5.0738033e-39
0.56846875 -0.25860789 0.75583154 5.1659989e-39
0.57500833 -0.25818378 0.75383765 5.1660003e-39
0.54094213 -0.25160834 0.75580114 2.9521561e-39
0.55826336 -0.25215763 0.75852978 5.1660003e-39
0.56219316 -0.25216952 0.75756353 5.0738047e-39
0.5684855 -0.25196132 0.75597447 5.1659989e-39
0.57583904 -0.25152183 0.75408065 5.1660003e-39
0.54153734 -0.24479088 0.75525326 2.8599577e-39
0.55794787 -0.24751832 0.75889069 5.1660003e-39
0.56281012 -0.24516232 0.75787026 5.1659989e-39
0.56946963 -0.24519497 0.75612235 5.1659989e-39
0.57594776 -0.24523145 0.75441414 5.1660003e-39
0.58145201 -0.2437972 0.75284243 5.1660003e-39
0.54304332 -0.23825715 0.75593978 3.0443545e-39
0.56343085 -0.23864023 0.75845355 5.1660003e-39
0.56933624 -0.23760448 0.75690389 5.1660003e-39
0.57605398 -0.23850442 0.75491428 5.1660003e-39
0.58175415 -0.2373904 0.75326854 5.1660003e-39
0.54366374 -0.23177373 0.75482935 3.0443559e-39
0.54608852 -0.23157501 0.75793093 3.2291115e-39
0.56391996 -0.23394747 0.75886559 5.1660003e-39
0.56886846 -0.23101829 0.75780684 5.1660003e-39
0.57632464 -0.23086563 0.75580895 5.1660003e-39
0.58188921 -0.23167855 0.7538774 5.1660017e-39
0.54431081 -0.22578824 0.75337273 2.9521589e-39
0.54694641 -0.22449458 0.75665581 3.3209512e-39
0.56954247 -0.22498502 0.75833809 5.1660003e-39
0.57590717 -0.22420213 0.75672716 5.1660003e-39
0.58249235 -0.22378555 0.75442445 5.1660017e-39
0.54797679 -0.21770214 0.75591332 3.2291129e-39
0.57178092 -0.21764264 0.75860655 6.9173389e-39
0.5763225 -0.21732004 0.75739408 5.8113627e-39
0.58243108 -0.21750467 0.75517309 5.2581959e-39
0.54898208 -0.21027228 0.75593853 3.2287528e-39
0.57585269 -0.21024337 0.75814235 1.696112e-38
0.58186215 -0.21056499 0.75617814 1.3553547e-38
0.58731568 -0.20966685 0.75321436 5.1660017e-39
0.54942155 -0.2032849 0.75535196 3.2287514e-39
0.55213273 -0.20305876 0.758807 3.2287514e-39
0.5766421 -0.20356369 0.75817204 1.1233429e-38
0.58356249 -0.20344904 0.75606948 1.0969544e-38
0.5501352 -0.1965922 0.75546503 3.1369145e-39
0.5523535 -0.19646373 0.75855154 3.2287514e-39
0.57797885 -0.19660342 0.75794542 1.0863566e-38
0.58364707 -0.19646341 0.75622839 7.9253013e-39
0.5887509 -0.19673158 0.75391948 5.1660017e-39
0.55062097 -0.19056551 0.75469726 2.9521575e-39
0.55292583 -0.18900913 0.75788951 3.1369159e-39
0.57761478 -0.18974963 0.75809675 1.0586618e-38
0.58330381 -0.18957488 0.75635344 1.3268246e-38
0.58831054 -0.18963522 0.75439996 1.401416e-38
0.55160338 -0.18433326 0.75337267 2.8599577e-39
0.55368227 -0.18253881 0.75653708 3.0443559e-39
0.57667524 -0.18307334 0.75813454 1.1050481e-38
0.58332825 -0.18263243 0.75570035 1.3726681e-38
0.58903241 -0.18296653 0.75361228 2.0282676e-38
0.55505151 -0.17574459 0.75569165 2.9521589e-39
0.57195318 -0.17378509 0.75886488 1.3730287e-38
0.57578456 -0.17610355 0.75799036 1.4377839e-38
0.58220607 -0.17619555 0.75573087 1.2711809e-38
0.5882951 -0.17595953 0.75328219 1.9175615e-38
0.55675018 -0.16882847 0.75554949 3.0443545e-39
0.56153029 -0.16660006 0.75819254 4.2432943e-39
0.57159626 -0.16899396 0.75851232 1.0325245e-38
0.57603651 -0.16878617 0.75748622 8.1147681e-39
0.5822385 -0.16878745 0.75551081 9.5898939e-39
0.58700168 -0.17030871 0.75355822 1.1802934e-38
0.55714726 -0.16339287 0.75376642 3.2287528e-39
0.56237841 -0.16233316 0.75523078 3.9667004e-39
0.56883872 -0.16179095 0.75619107 3.966699e-39
0.57561469 -0.1619311 0.75676805 3.1369201e-39
0.58127564 -0.16305448 0.75576472 3.6901121e-39
0.56567913 -0.15863678 0.75233102 3.8745006e-39
0.57046294 -0.15783992 0.75260282 3.8745006e-39
0.5747987 -0.15803224 0.75387681 3.8745006e-39
0.52313626 -0.073859915 0.75342757 1.2631522e-38
0.3203069 0.52668685 0.75344449 4.1326169e-39
0.23416469 0.56097931 0.75811589 4.1326169e-39
0.23821627 0.56098771 0.755674 4.1326169e-39
0.24490693 0.56100154 0.7555691 4.1326169e-39
0.25183502 0.56101584 0.75559545 4.1326169e-39
0.25879174 0.56103039 0.75562549 4.1326169e-39
0.26552698 0.56104422 0.75549328 4.1326169e-39
0.27241093 0.5610584 0.7555064 4.1326169e-39
0.27942312 0.56107295 0.75547862 4.1326169e-39
0.2863768 0.56108725 0.75550205 4.1326169e-39
0.29321444 0.5611015 0.75573909 4.1326169e-39
0.29887185 0.56111318 0.75521493 4.1326169e-39
0.27816346 0.5756548 0.75656587 4.1326169e-39
0.29054904 -0.55890191 0.76009887 1.1164145e-41
0.29433784 -0.55889398 0.76195282 1.1164145e-41
0.29864523 -0.55865538 0.76222354 1.1164145e-41
0.54917294 -0.36871246 0.76072788 2.3986096e-39
0.57484317 -0.35123822 0.76108849 5.0737977e-39
0.54411966 -0.33482772 0.75910914 2.1216598e-39
0.54726917 -0.33337533 0.75994188 2.3982467e-39
0.54782557 -0.32816908 0.75971687 4.1503266e-39
0.54611236 -0.32293612 0.75903326 2.3989739e-39
0.54275554 -0.31251654 0.75920844 4.7972066e-39
0.5472942 -0.31249177 0.75934947 4.8894078e-39
0.53715968 -0.30612352 0.75942475 4.7972066e-39
0.54176354 -0.30718619 0.75975847 4.7972066e-39
0.54865444 -0.30729288 0.75994307 4.9816034e-39
0.55490965 -0.30547711 0.75936896 5.0738019e-39
0.53678805 -0.30047548 0.75974089 4.2436586e-39
0.5418995 -0.30007327 0.76053351 4.7050095e-39
0.54830301 -0.30014464 0.760993 4.8894078e-39
0.55526471 -0.30027699 0.75971407 5.0738047e-39
0.53759754 -0.29492778 0.75958169 3.5982682e-39
0.54165149 -0.29310337 0.76058757 4.5206127e-39
0.54794234 -0.29311249 0.76125067 4.8894064e-39
0.5540539 -0.29316768 0.75997627 5.1660003e-39
0.54202855 -0.28634447 0.76043981 4.1514588e-39
0.54867917 -0.2864922 0.76071739 5.0738019e-39
0.55414557 -0.28623238 0.75974536 5.0738033e-39
0.62050617 -0.28541473 0.75940627 4.4280541e-39
0.54321676 -0.27942798 0.7603429 4.0589002e-39
0.54899889 -0.27960178 0.76018566 5.0738019e-39
0.55466616 -0.27938753 0.75927174 5.0738019e-39
0.5432024 -0.272953 0.76002532 3.9667018e-39
0.54908848 -0.27249965 0.76008219 5.0738033e-39
0.55366254 -0.27241918 0.75929797 5.0738019e-39
0.5433802 -0.26628476 0.75963086 4.3358557e-39
0.54834443 -0.26533234 0.76024276 4.7972066e-39
0.55376601 -0.26578313 0.75917864 5.0738019e-39
0.54365379 -0.25922343 0.75927997 4.7046466e-39
0.54808444 -0.25870883 0.76018155 4.6128111e-39
0.55353284 -0.25896925 0.75944734 5.1660003e-39
0.49296477 -0.25453621 0.7593869 2.789321e-39
0.54404503 -0.25148025 0.75919664 4.7046466e-39
0.54796332 -0.25193143 0.76001143 4.6124496e-39
0.55421788 -0.25206769 0.75966239 5.1660003e-39
0.5441457 -0.24489675 0.7590785 4.7046466e-39
0.54829443 -0.24497756 0.75987709 4.612451e-39
0.55491817 -0.2449459 0.75992388 5.0738033e-39
0.54865307 -0.23803049 0.75971055 4.7046466e-39
0.55468625 -0.23822246 0.76037747 4.8894064e-39
0.56069076 -0.23773964 0.75954449 5.0738033e-39
0.54949409 -0.23125531 0.75960934 4.5202525e-39
0.55566645 -0.23121661 0.7603212 4.7972094e-39
0.5620234 -0.23076762 0.759727 5.1660003e-39
0.55043912 -0.22449072 0.75951439 4.5202497e-39
0.55577534 -0.22424103 0.76007742 4.797208e-39
0.56268984 -0.22420506 0.76010025 4.9812447e-39
0.56758177 -0.22190076 0.75924778 5.1660003e-39
0.55158007 -0.21766719 0.75944614 4.3358543e-39
0.55619103 -0.21738365 0.76002896 4.7968464e-39
0.56257653 -0.21727443 0.76056188 5.0734375e-39
0.56807959 -0.21708603 0.75965643 6.3641693e-39
0.55186301 -0.21111223 0.75911891 3.2287514e-39
0.55528784 -0.21047264 0.76056314 4.6120894e-39
0.56187963 -0.21037899 0.76101696 6.6407464e-39
0.56883115 -0.21051739 0.75994247 1.8900117e-38
0.51135623 -0.20035832 0.75989652 2.7875246e-39
0.55523086 -0.20357843 0.76112735 4.2432957e-39
0.56194037 -0.20353638 0.76128221 1.0880986e-38
0.56888497 -0.20362388 0.76021647 1.6314657e-38
0.5547632 -0.19687214 0.76116204 3.7823021e-39
0.5615828 -0.19645593 0.76166427 9.8672025e-39
0.56836134 -0.19695972 0.7606293 1.6592324e-38
0.57380396 -0.19678423 0.75905961 1.0587338e-38
0.55556667 -0.19016206 0.76114225 3.6901037e-39
0.562392 -0.1895012 0.76192176 1.0143426e-38
0.56948167 -0.18998095 0.76062417 1.6776355e-38
0.57362288 -0.18990216 0.75926083 1.178985e-38
0.55662423 -0.18299569 0.7605657 3.2291115e-39
0.56226707 -0.18284595 0.7618655 1.3277681e-38
0.56940758 -0.18285951 0.76058221 1.6131709e-38
0.57363111 -0.18460728 0.75925159 1.1606542e-38
0.55801588 -0.17599541 0.7600655 3.1365544e-39
0.56161571 -0.17606735 0.76147592 1.1341586e-38
0.56844234 -0.17597677 0.76019251 1.6131351e-38
0.56231529 -0.16972853 0.7600857 5.1652436e-39
0.56818038 -0.16958329 0.759543 6.7325749e-39
0.23347189 0.56097776 0.76264149 4.1326169e-39
0.23796375 0.56098711 0.76245457 4.1326169e-39
0.24491005 0.56100142 0.76238239 4.1326169e-39
0.25174144 0.56101561 0.76253641 4.1326169e-39
0.25859562 0.56102979 0.76238012 4.1326169e-39
0.26555625 0.56104416 0.76251215 4.1326169e-39
0.27254736 0.56105858 0.76241046 4.1326169e-39
0.27934963 0.56107271 0.76243627 4.1326169e-39
0.2862885 0.56108707 0.76234943 4.1326169e-39
0.29306984 0.56110102 0.76260942 4.1326169e-39
0.29881218 0.561113 0.76218086 4.1326169e-39
0.29634911 -0.55888975 0.76634395 1.1164145e-41
0.29900286 -0.5588842 0.76789552 1.1164145e-41
0.28863776 -0.5396291 0.772533 1.1164145e-41
0.38067672 -0.5423066 0.77037734 1.1164145e-41
0.29302794 -0.50131392 0.77039856 1.1164145e-41
0.55029154 -0.30384123 0.77173156 3.8741292e-39
0.57816774 -0.30232751 0.76837844 4.9816034e-39
0.55875885 -0.25239605 0.76860321 4.7968464e-39
0.55757594 -0.24314854 0.76939756 4.7046494e-39
0.59398526 -0.23361622 0.7710886 2.8599577e-39
0.57440579 -0.21036412 0.77190208 1.1141957e-38
0.56074339 -0.19809854 0.76880687 1.475062e-38
0.49488732 -0.17284834 0.76679784 2.9521575e-39
0.54729319 -0.17655674 0.76849258 1.2350292e-38
0.5376901 -0.12218747 0.76902455 6.6389023e-39
0.32080054 0.54343075 0.77144736 4.1326169e-39
0.23439127 0.56097966 0.76590019 4.1326169e-39
0.23892047 0.56098902 0.76856506 4.1326169e-39
0.2450304 0.56100166 0.76939642 4.1326169e-39
0.25186697 0.56101578 0.76937491 4.1326169e-39
0.25874534 0.56102997 0.76928854 4.1326169e-39
0.26566529 0.56104434 0.76940638 4.1326169e-39
0.27253112 0.56105858 0.76934528 4.1326169e-39
0.27953923 0.56107295 0.76935053 4.1326169e-39
0.28632993 0.56108701 0.76929867 4.1326169e-39
0.29326114 0.56110138 0.7693333 4.1326169e-39
0.29904148 0.5611133 0.76951557 4.1326169e-39
0.33404571 0.58336627 0.77259207 4.1326169e-39
0.54006869 -0.25663513 0.77461243 2.9521589e-39
0.57183886 -0.19118999 0.77685815 1.3368424e-38
0.57275492 -0.13943827 0.7760933 3.0590906e-39
0.24086118 0.5609929 0.77282423 4.1326169e-39
0.24551228 0.56100249 0.77557671 4.1326169e-39
0.25185308 0.56101567 0.77623188 4.1326169e-39
0.25863415 0.56102967 0.77629143 4.1326169e-39
0.26550224 0.56104386 0.7762683 4.1326169e-39
0.27248058 0.56105828 0.77630353 4.1326169e-39
0.27936518 0.56107253 0.77609706 4.1326169e-39
0.286383 0.56108707 0.77633828 4.1326169e-39
0.2933248 0.56110144 0.77623272 4.1326169e-39
0.29893324 0.56111306 0.77645266 4.1326169e-39
0.56345487 -0.32601592 0.78175312 4.889405e-39
0.55914778 -0.2834585 0.78038615 4.5202511e-39
0.24769086 0.56100702 0.78013325 4.1326169e-39
0.2523838 0.56101662 0.78259599 4.1326169e-39
0.25862792 0.56097901 0.78298903 4.2244524e-39
0.26561123 0.56104404 0.78310436 4.1326169e-39
0.27254301 0.56105834 0.78314024 4.1326169e-39
0.27938935 0.56107247 0.78319246 4.1326169e-39
0.28634056 0.56108695 0.78329372 4.1326169e-39
0.29322502 0.5611012 0.78323567 4.1326169e-39
0.2988869 0.56111282 0.78324395 4.1326169e-39
0.2850669 0.57681477 0.78367537 1.4234566e-38
0.33718327 0.58584553 0.77998036 1.166316e-38
0.51640737 -0.36826909 0.78745472 3.2287528e-39
0.57361096 -0.31651098 0.78721112 5.1660003e-39
0.53623718 -0.27709225 0.78708243 2.8599577e-39
0.55845106 -0.25485533 0.79247147 1.1249396e-38
0.57529044 -0.22497389 0.78983551 4.612088e-39
0.60925949 -0.19923893 0.7929917 4.8894078e-39
0.25452089 0.56102103 0.78744262 4.1326169e-39
0.25925952 0.56100088 0.78959799 4.1326169e-39
0.26566711 0.56104398 0.7899555 4.1326169e-39
0.27259576 0.5610584 0.79006684 4.1326169e-39
0.27948332 0.56107259 0.79008454 4.1326169e-39
0.28629914 0.56108671 0.79014045 4.1326169e-39
0.29322875 0.56110096 0.79019761 4.1326169e-39
0.29896253 0.56111288 0.7900728 4.1326169e-39
0.61930984 -0.17666665 0.79481584 1.2074431e-38
0.1946234 0.53858018 0.79595578 4.1326169e-39
0.26129246 0.56103492 0.79427344 4.1326169e-39
0.26600713 0.56104469 0.79654539 4.1326169e-39
0.27247658 0.56105804 0.79695517 4.1326169e-39
0.27938119 0.56107235 0.79695678 4.1326169e-39
0.28631458 0.56108671 0.79703528 4.1326169e-39
0.2933262 0.56110114 0.79699624 4.1326169e-39
0.29890645 0.5611127 0.79682958 4.1326169e-39
0.27273244 0.55198723 0.80112743 4.1326169e-39
0.29553542 0.55541497 0.80624896 1.4234566e-38
0.26799375 0.56104875 0.80152816 4.1326169e-39
0.27301949 0.56141281 0.80333877 6.887693e-39
0.27933323 0.56229568 0.80388254 9.2754272e-39
0.28631106 0.56237537 0.8040396 9.8264429e-39
0.29338962 0.56230998 0.80386114 9.3672626e-39
0.29906717 0.56230831 0.80383945 9.1835917e-39
0.2806623 0.56701726 0.80499977 1.4234566e-38
0.28670505 0.56884795 0.80499989 1.4234566e-38
0.29345495 0.56920499 0.80500019 1.4234566e-38
0.29916546 0.56936824 0.80500031 1.4234566e-38
0.28904259 0.57339132 0.80499971 1.4234566e-38
0.29412228 0.5749957 0.80500025 1.4234566e-38
0.29918802 0.5763256 0.80500031 1.4234566e-38
0.30001929 0.58059239 0.80500031 1.4234566e-38
0.559879 -0.23109752 0.81959558 3.9667004e-39
0.33599758 0.54599369 0.81934452 1.1938668e-38
0.27458927 0.58329624 0.83758497 4.1326169e-39
0.27601445 0.58645117 0.84829235 4.1326169e-39
