# .PCD v0.7 - Point Cloud Data file format
VERSION 0.7
FIELDS x y z rgb
SIZE 4 4 4 4
TYPE F F F F
COUNT 1 1 1 1
WIDTH 488
HEIGHT 1
VIEWPOINT 0 0 0 1 0 0 0
POINTS 488
DATA ascii
0.53177911 -0.27170756 0.70161486 1.1708845e-38
0.57783455 -0.25188145 0.70054221 3.231987e-39
0.53834832 -0.22165476 0.70231301 1.1708845e-38
0.54129732 -0.19680904 0.70048487 3.6893498e-39
0.54177457 -0.189823 0.70055836 2.8599577e-39
0.54270267 -0.1827652 0.70041335 2.8599577e-39
0.54395616 -0.17596324 0.70042837 2.8599577e-39
0.54514182 -0.17342179 0.70349169 2.8599577e-39
0.54581076 -0.16825016 0.70164406 2.8599577e-39
0.54826659 -0.1617392 0.70090228 2.8599577e-39
0.55375391 -0.15725949 0.70070851 2.8599577e-39
0.54130471 -0.14652728 0.70308369 2.7720738e-39
0.52788728 -0.077597342 0.70166451 1.5120082e-38
0.53373206 -0.080817595 0.70136595 1.9084495e-38
0.52150744 -0.071559548 0.70026994 1.1432257e-38
0.52537239 -0.073255464 0.70292932 1.5120083e-38
0.54874718 -0.071818292 0.70261794 1.7055101e-38
0.50869471 -0.065457702 0.70170856 1.4013373e-38
0.51952505 -0.066248707 0.702084 1.1801041e-38
0.5512262 -0.068092659 0.70319045 1.5487053e-38
0.55558991 -0.065538533 0.70215607 1.6870351e-38
0.56000566 -0.064234748 0.70084596 1.8254372e-38
0.51336187 -0.060528208 0.70146531 1.097128e-38
0.5184015 -0.061742507 0.70378375 1.1247867e-38
0.55872452 -0.061603829 0.70367777 1.5764005e-38
0.56349361 -0.060436282 0.70270824 1.4106696e-38
0.50175232 -0.05015675 0.70070064 1.3368365e-38
0.50550717 -0.053467866 0.70163423 1.3091778e-38
0.57432824 -0.051739126 0.70180261 4.7972066e-39
0.49963179 -0.044850092 0.70051581 1.2170545e-38
0.58313233 -0.044333301 0.70108986 4.7972066e-39
0.50420684 -0.036632117 0.70220596 1.097128e-38
0.58956152 -0.038271278 0.70086253 4.889405e-39
0.50675386 -0.031024246 0.70078665 1.263044e-38
0.51136613 -0.029001139 0.70335007 1.1432257e-38
0.58330154 -0.034227408 0.70061564 1.5120443e-38
0.5941956 -0.03196789 0.70281512 1.1156473e-38
0.51424599 -0.024006274 0.70115787 1.3829343e-38
0.52057385 -0.023114977 0.70336121 1.8254729e-38
0.52592856 -0.02129209 0.70368218 1.9176321e-38
0.60017723 -0.025743205 0.70324349 1.9544752e-38
0.60314101 -0.022619242 0.70310521 1.9452556e-38
0.52129775 -0.017544487 0.70081502 1.3552395e-38
0.52732313 -0.016695706 0.70316517 1.6779603e-38
0.53162533 -0.013876881 0.7036249 1.834693e-38
0.60713661 -0.019525502 0.7026208 1.9914255e-38
0.61080003 -0.016048137 0.70287585 1.9729503e-38
0.53404391 -0.0095869489 0.70278233 1.0143026e-38
0.53911859 -0.0079605691 0.70379597 4.4280541e-39
0.6129691 -0.013158835 0.70336372 1.9637305e-38
0.61772889 -0.010842538 0.70291686 1.9914256e-38
0.62373483 -0.0077152094 0.70234859 2.0559625e-38
0.53545249 -0.0043417839 0.70011318 3.9666766e-39
0.54087424 -0.0024556601 0.70230836 3.9670619e-39
0.54522407 -0.0004035905 0.70338666 4.1510973e-39
0.62656587 -0.0052906573 0.70289373 1.7148021e-38
0.54738873 0.004178985 0.70186675 3.5979081e-39
0.55274236 0.0056763701 0.7037518 3.874502e-39
0.55539328 0.010814749 0.70136458 3.7822993e-39
0.56006908 0.012868173 0.70283002 7.5611753e-39
0.58348638 0.010806449 0.70278317 1.0320147e-38
0.5621171 0.017331762 0.70102584 1.0786891e-38
0.56661451 0.019638162 0.70256865 1.0879084e-38
0.61953843 0.018708602 0.70211387 1.456691e-38
0.62173337 0.016235575 0.70334804 1.5304475e-38
0.56919485 0.02437439 0.700302 1.0325911e-38
0.57554609 0.02659989 0.70304841 1.4843495e-38
0.58307511 0.026785677 0.70362741 1.6779605e-38
0.61252505 0.024454495 0.70222759 1.5120083e-38
0.61695015 0.021178456 0.70132852 1.5027888e-38
0.57670653 0.03121943 0.70037729 1.0786889e-38
0.58290249 0.031735227 0.70284873 1.7885592e-38
0.58716047 0.033203706 0.70370066 1.8162539e-38
0.60390496 0.03336738 0.70263779 1.6687408e-38
0.60964096 0.029352613 0.7009902 1.5027888e-38
0.58899772 0.038986757 0.70214719 1.5765088e-38
0.59693003 0.038136754 0.70332384 1.9084493e-38
0.46356469 0.18816784 0.70219141 4.9778437e-39
0.45415568 0.19917476 0.70001936 5.3480752e-39
0.45863536 0.19629595 0.70022404 5.9909125e-39
0.46424299 0.19529408 0.70026922 8.3908883e-39
0.47118717 0.19748908 0.70030802 8.7571401e-39
0.45067191 0.20344441 0.70067394 5.1625993e-39
0.44575968 0.21067554 0.70051444 5.2555166e-39
0.44852176 0.20707782 0.70186549 4.5139733e-39
0.44002074 0.21866514 0.70015496 5.3480752e-39
0.44235247 0.21553957 0.700728 5.0704009e-39
0.4366968 0.22365728 0.70083445 4.9774836e-39
0.43164197 0.23103234 0.70024627 5.1629595e-39
0.43000239 0.23816967 0.70059079 4.7916448e-39
0.43201438 0.24482062 0.70076233 4.7916448e-39
0.43776259 0.251183 0.70064586 4.7912777e-39
0.44284973 0.25431782 0.70057786 4.8831132e-39
0.25458676 0.56102222 0.70119786 4.1326169e-39
0.25889674 0.56103122 0.70039755 4.1326169e-39
0.26574782 0.56104535 0.70022964 4.1326169e-39
0.27252057 0.56105936 0.70042765 4.1326169e-39
0.27937332 0.56107354 0.70039314 4.1326169e-39
0.28628552 0.56108785 0.70045614 4.1326169e-39
0.29308695 0.56110185 0.70027596 4.1326169e-39
0.29873791 0.56111354 0.700279 4.1326169e-39
0.25333169 -0.55897999 0.70782256 1.1164145e-41
0.29443216 -0.55889493 0.7074334 1.1164145e-41
0.52831542 -0.33148301 0.71041691 3.043993e-39
0.52302331 -0.32596293 0.706043 2.2142113e-39
0.52575362 -0.32900286 0.70786881 1.4762651e-39
0.52273512 -0.32091358 0.70790642 2.6755636e-39
0.52319819 -0.31391147 0.70747006 2.8606765e-39
0.52368802 -0.30709508 0.70680964 2.8606765e-39
0.52447402 -0.30418253 0.70930767 2.8653471e-39
0.52534318 -0.3000657 0.70723653 2.8617541e-39
0.52715856 -0.29322806 0.70729715 2.8624716e-39
0.52905297 -0.28616324 0.70727992 6.6424518e-39
0.53147352 -0.28647816 0.70390487 2.7810562e-39
0.53061593 -0.28031343 0.70718914 1.0053654e-38
0.53138161 -0.27709654 0.70703083 1.0513549e-38
0.53230441 -0.27261245 0.70767891 9.5941175e-39
0.53345275 -0.26544535 0.70700747 1.0145848e-38
0.55135262 -0.26557368 0.70385545 1.1616649e-38
0.53447807 -0.25876179 0.70732194 1.0145848e-38
0.53543925 -0.25178951 0.70730859 1.0053654e-38
0.53629333 -0.24491929 0.70726293 1.0789414e-38
0.53708142 -0.23785828 0.70703655 1.0789414e-38
0.50298101 -0.22807868 0.70731986 6.0766103e-39
0.53773892 -0.23208076 0.70701176 1.0973444e-38
0.53834605 -0.22910967 0.70910239 1.0605743e-38
0.53806406 -0.22716917 0.70515656 1.1708845e-38
0.53865635 -0.22388889 0.70685828 1.1524815e-38
0.54700601 -0.2219135 0.70706999 2.8728917e-39
0.53946936 -0.21761607 0.70755053 7.8391859e-39
0.54033178 -0.21038027 0.70717084 2.8603164e-39
0.54123497 -0.2034011 0.70716232 2.8603164e-39
0.54214174 -0.19664218 0.70749325 2.8603164e-39
0.54295158 -0.18938838 0.7065919 2.8599577e-39
0.54427278 -0.18338513 0.70684057 2.8599577e-39
0.54567659 -0.18111537 0.70896965 2.8603164e-39
0.56513625 -0.18538387 0.70708686 7.6634196e-39
0.54463023 -0.17814916 0.70476151 2.8599577e-39
0.54649335 -0.17569095 0.70793557 2.8599577e-39
0.54765987 -0.16888316 0.707075 2.8599577e-39
0.54942775 -0.16255687 0.70719588 2.8599577e-39
0.55244279 -0.15917386 0.70658904 2.8599577e-39
0.55600595 -0.15705195 0.70683557 2.8599577e-39
0.56062114 -0.15450765 0.70813513 3.0447161e-39
0.53103787 -0.076358646 0.70439404 1.5304473e-38
0.53500813 -0.077915698 0.70484608 1.7424611e-38
0.53962004 -0.078148268 0.70562255 1.8715713e-38
0.52830303 -0.072073601 0.70480245 1.6225708e-38
0.53408951 -0.072629251 0.70659912 1.6041672e-38
0.5401184 -0.072088741 0.70727295 1.9545472e-38
0.54520649 -0.069746733 0.70587867 1.7608278e-38
0.56692427 -0.07446523 0.70817173 1.871499e-38
0.52269292 -0.065137431 0.70504445 1.2077628e-38
0.52751857 -0.065677695 0.70637518 1.7977783e-38
0.53408068 -0.065758288 0.70661163 1.9084132e-38
0.54123837 -0.065493546 0.70724809 1.9268522e-38
0.54816592 -0.064747244 0.70613182 1.9545112e-38
0.55293882 -0.063451208 0.70473993 1.7793031e-38
0.51445544 -0.05751162 0.70566404 1.2538606e-38
0.52115583 -0.058754556 0.70630443 1.4659105e-38
0.52742875 -0.058722153 0.70646775 1.5765453e-38
0.53464073 -0.058534794 0.70616025 1.9176329e-38
0.54189998 -0.058669612 0.7065655 1.8529877e-38
0.54864317 -0.05842844 0.70722413 1.9452916e-38
0.555269 -0.058571979 0.70661449 1.9452916e-38
0.56135452 -0.057435032 0.7053495 1.4843527e-38
0.56590652 -0.055765435 0.70467031 5.2581875e-39
0.50785428 -0.05111127 0.70539981 1.2998138e-38
0.51371574 -0.052116822 0.70653337 1.4843496e-38
0.52139378 -0.051759802 0.70620698 1.5027888e-38
0.52770984 -0.051630393 0.70628816 1.5120083e-38
0.5342738 -0.05172655 0.70608795 1.5765453e-38
0.54191196 -0.05202492 0.70585841 1.8991937e-38
0.54861504 -0.051703751 0.70634526 1.9176687e-38
0.55531901 -0.051659632 0.70688438 1.9452914e-38
0.56225246 -0.051491041 0.70670265 1.9176704e-38
0.56857699 -0.051372245 0.70540702 1.4475852e-38
0.5741601 -0.048410267 0.70447195 5.1660003e-39
0.50267953 -0.044918776 0.70448929 1.3459475e-38
0.50716186 -0.044877697 0.70684624 1.4657658e-38
0.51432872 -0.044737946 0.70678872 1.6687409e-38
0.52111799 -0.045288742 0.70569944 1.5120083e-38
0.5275799 -0.044603877 0.70575422 1.5027888e-38
0.53487486 -0.044816814 0.70585656 1.5120083e-38
0.54146212 -0.044866513 0.70572841 1.5673256e-38
0.54789257 -0.044885676 0.70589912 1.8346928e-38
0.5555672 -0.044870526 0.70638126 1.9453278e-38
0.5623349 -0.044935044 0.70678914 1.9269251e-38
0.56903809 -0.044581927 0.70658815 9.7750041e-39
0.57635331 -0.044265602 0.70538396 4.9816062e-39
0.50333667 -0.040497404 0.70440996 8.8504189e-39
0.50668168 -0.038362749 0.7060256 1.5119722e-38
0.51387155 -0.0379945 0.70616794 1.9084132e-38
0.5209738 -0.037660763 0.7053079 1.6318626e-38
0.52755392 -0.038009062 0.70525908 1.5120083e-38
0.5348208 -0.03804519 0.70537752 1.5027888e-38
0.541596 -0.037964564 0.70555663 1.5027888e-38
0.54831094 -0.038070668 0.70586139 1.5488864e-38
0.55571711 -0.037889052 0.70619476 1.7978149e-38
0.56231207 -0.037990667 0.70645285 1.0696229e-38
0.56952006 -0.038005281 0.70658445 5.3500174e-39
0.5766679 -0.038162883 0.7063697 4.8894064e-39
0.58273202 -0.037213109 0.70600086 4.8894064e-39
0.58724862 -0.034718975 0.70605272 5.1659989e-39
0.50917137 -0.033082049 0.7046876 1.4013734e-38
0.51432359 -0.031521976 0.7046243 1.8899737e-38
0.52064312 -0.030882839 0.70451081 1.8991934e-38
0.52766234 -0.031184312 0.70511609 1.5765453e-38
0.53512597 -0.030913817 0.70545089 1.5027888e-38
0.54171336 -0.030851876 0.70571536 1.5120083e-38
0.54811925 -0.031330481 0.70588601 1.5120083e-38
0.55572659 -0.030890081 0.70618302 9.7742586e-39
0.56258941 -0.031196376 0.70628732 4.8894064e-39
0.5695188 -0.03101846 0.70625943 4.8894064e-39
0.57629138 -0.031119796 0.70624542 4.8894064e-39
0.58274394 -0.030822786 0.70628905 4.8894064e-39
0.58880281 -0.030467307 0.70618868 5.442213e-39
0.59449196 -0.02867581 0.70492786 1.5027191e-38
0.52256006 -0.026198596 0.70401973 1.9175961e-38
0.52815276 -0.024542252 0.70466489 1.8069979e-38
0.53473276 -0.024076931 0.70554799 1.5857648e-38
0.54218996 -0.02413282 0.70603186 1.5027888e-38
0.54873234 -0.024382772 0.70634061 1.1433036e-38
0.5557071 -0.024044791 0.70640165 5.0737949e-39
0.56253523 -0.024151111 0.7063539 4.8894064e-39
0.569332 -0.024067249 0.70636749 4.8894064e-39
0.57667118 -0.023914253 0.70636553 4.8894064e-39
0.58279103 -0.024148529 0.70642161 4.8894064e-39
0.59001583 -0.024425272 0.70648378 5.5344073e-39
0.59674478 -0.024181599 0.7055819 1.2907799e-38
0.60052758 -0.020832896 0.70529515 1.6132789e-38
0.53042358 -0.018699709 0.70420873 1.834657e-38
0.53515083 -0.016935252 0.70492882 1.8254736e-38
0.54234624 -0.017192002 0.70609218 1.0602202e-38
0.54865307 -0.017419109 0.70644081 5.0734333e-39
0.55525345 -0.017090335 0.70655632 4.8890463e-39
0.56247985 -0.017107168 0.70642209 4.8894064e-39
0.56951135 -0.017341157 0.70642239 4.8894064e-39
0.57661563 -0.017577259 0.70643234 4.8894064e-39
0.58287823 -0.017215023 0.7064932 4.889405e-39
0.58991897 -0.017214667 0.70659721 4.889405e-39
0.59733123 -0.017232278 0.7063632 1.1157201e-38
0.60400331 -0.016294952 0.70528901 1.9360719e-38
0.53568131 -0.012137591 0.70542634 1.2631939e-38
0.54141617 -0.010581395 0.70517129 4.7968338e-39
0.54798687 -0.010293722 0.70629907 4.7968464e-39
0.55548513 -0.010652881 0.70648432 4.8890477e-39
0.56257451 -0.010291988 0.70648092 4.8894064e-39
0.56951183 -0.010259666 0.70642197 4.8894064e-39
0.57672828 -0.010459691 0.70629728 4.9812433e-39
0.58276623 -0.010135143 0.70626253 4.889405e-39
0.59009188 -0.010021304 0.70639461 9.498057e-39
0.59765458 -0.01022884 0.70616454 2.0006449e-38
0.60430944 -0.010100769 0.70536774 2.0097914e-38
0.61060369 -0.010385501 0.70470816 1.991389e-38
0.61589038 -0.0082878284 0.70497948 1.9729859e-38
0.54342765 -0.0049762218 0.70426995 4.1510987e-39
0.54830986 -0.0035140403 0.7056433 4.3354955e-39
0.55535376 -0.0036496341 0.70664805 4.8890463e-39
0.56219399 -0.003319527 0.70658493 4.9812433e-39
0.56889606 -0.0033492579 0.70631939 4.9812433e-39
0.57605046 -0.0031654309 0.70613164 4.9812419e-39
0.58313209 -0.0034763198 0.70601708 7.0091534e-39
0.58937001 -0.0036091416 0.70601344 1.4936063e-38
0.59668952 -0.0037641705 0.7060585 1.8991935e-38
0.60445267 -0.0039373296 0.70569474 2.0097553e-38
0.61123896 -0.0037722702 0.7055124 1.9360351e-38
0.61746287 -0.0031859758 0.70597577 1.9452914e-38
0.62242287 -0.0026643525 0.70625949 1.9729863e-38
0.55013216 0.0021809265 0.70457238 4.0589002e-39
0.55551386 0.0033815235 0.70608515 4.3354941e-39
0.56235927 0.0032328218 0.70657063 4.9812433e-39
0.56863666 0.0031278047 0.70625639 4.9816034e-39
0.57598704 0.0030060927 0.70596278 6.6403779e-39
0.58330923 0.0036832541 0.70580697 1.4751309e-38
0.58963227 0.0035849924 0.70570564 1.5212279e-38
0.59700274 0.0034719694 0.70569551 1.5949844e-38
0.60425395 0.0033640047 0.70592123 1.8900101e-38
0.61056435 0.0037857236 0.7065469 1.908449e-38
0.61755174 0.0037646419 0.70731783 1.9360715e-38
0.6230914 0.0030881241 0.70674068 1.8991575e-38
0.55767155 0.0075734723 0.704988 3.5979067e-39
0.56247735 0.010261825 0.70560575 6.2712114e-39
0.56897789 0.010198266 0.70584089 6.9173249e-39
0.5762223 0.010124197 0.70567977 1.3829724e-38
0.58346868 0.010847584 0.70561785 1.5212279e-38
0.58978218 0.010787964 0.70552969 1.5304475e-38
0.59707934 0.010720573 0.70560664 1.5027888e-38
0.6042518 0.010656424 0.70592356 1.5581061e-38
0.61057889 0.010413795 0.70644784 1.8070339e-38
0.61695218 0.010485643 0.70718229 1.8346929e-38
0.62189913 0.012134207 0.70561647 1.9268885e-38
0.5647409 0.014938523 0.70486963 1.1063476e-38
0.56911105 0.017276021 0.70497698 1.6411189e-38
0.57613868 0.01702171 0.70525295 1.7240583e-38
0.58314878 0.017447729 0.70529759 1.5120083e-38
0.58995497 0.017193543 0.70532686 1.5212279e-38
0.59662694 0.016980331 0.70528102 1.5120083e-38
0.60373676 0.01730112 0.70553499 1.4935692e-38
0.61107105 0.017111083 0.70551443 1.4843496e-38
0.61680013 0.015722355 0.7055952 1.5488866e-38
0.57152855 0.021737253 0.70437813 1.6410461e-38
0.57632184 0.022793178 0.70432848 1.9084495e-38
0.58279663 0.022637574 0.7044521 1.5673257e-38
0.58930445 0.024001893 0.70486468 1.456691e-38
0.59662652 0.023612039 0.70490319 1.5212279e-38
0.60329843 0.023433371 0.7049427 1.5212279e-38
0.60915101 0.023084434 0.70442241 1.539667e-38
0.59001356 0.030723408 0.70468038 1.5488866e-38
0.59670818 0.030864742 0.70480913 1.5765453e-38
0.60307002 0.02947394 0.70428109 1.539667e-38
0.59156418 0.036719993 0.70425731 1.770156e-38
0.59500307 0.036214098 0.70515186 1.7885952e-38
0.57625949 0.053312473 0.70589805 1.0510303e-38
0.45531178 0.19935653 0.70405054 4.2326851e-39
0.45899841 0.19845675 0.70600563 5.0606381e-39
0.46548694 0.19813244 0.70571911 5.981507e-39
0.47058156 0.19927077 0.70541602 6.7208825e-39
0.45292166 0.2043058 0.70684785 4.6925786e-39
0.45783907 0.20217197 0.70909613 5.3365033e-39
0.46592605 0.20226307 0.7090621 5.9807867e-39
0.47224376 0.20351134 0.7082352 6.6268764e-39
0.47756827 0.2063691 0.70602214 7.3658903e-39
0.44714567 0.21132022 0.70613199 4.0482952e-39
0.45061186 0.20967461 0.7088958 4.7844141e-39
0.47451401 0.20823701 0.70922804 6.3488461e-39
0.47751716 0.20931347 0.70797217 6.7183517e-39
0.44064865 0.21888521 0.70483011 4.4196099e-39
0.44487581 0.21725363 0.70778561 4.5085489e-39
0.44936609 0.21424939 0.71067375 5.0606381e-39
0.47502458 0.21979451 0.7097283 6.7169056e-39
0.47705203 0.21734965 0.70927024 6.7169056e-39
0.43883994 0.22458808 0.70724207 4.4163547e-39
0.44297865 0.22283949 0.70981735 5.1524736e-39
0.4716894 0.22415228 0.71012324 6.6247114e-39
0.47612327 0.22243731 0.70812756 6.2566519e-39
0.43306911 0.2318188 0.70555812 4.1404894e-39
0.4364785 0.23055965 0.70897621 4.7844141e-39
0.46772727 0.23257834 0.70964307 6.6247114e-39
0.47002226 0.22824933 0.70957959 6.4410404e-39
0.43285203 0.23815584 0.70679933 4.2323249e-39
0.43531305 0.23822412 0.71002692 4.4167134e-39
0.43308881 0.24380714 0.70690095 4.2323249e-39
0.43711528 0.24567026 0.70905632 4.7844141e-39
0.46220919 0.2440495 0.70869637 6.4410404e-39
0.46391594 0.24155222 0.70864451 6.4410404e-39
0.4393436 0.24993972 0.7065115 3.8642655e-39
0.44483769 0.25170875 0.70805126 4.6007431e-39
0.45089561 0.25283414 0.70758295 5.4290576e-39
0.45856091 0.24938498 0.70667142 6.2570106e-39
0.4913674 0.27507216 0.70650774 4.4170763e-39
0.25322118 0.56101936 0.70768785 4.1326169e-39
0.2586441 0.56103063 0.70729721 4.1326169e-39
0.26573294 0.56104523 0.70716822 4.1326169e-39
0.27260363 0.56105942 0.7072292 4.1326169e-39
0.27948478 0.56107372 0.70735264 4.1326169e-39
0.28634298 0.56108785 0.70716572 4.1326169e-39
0.29324397 0.56110209 0.70725912 4.1326169e-39
0.29914117 0.56105673 0.70718348 4.1326169e-39
0.25235575 -0.55898184 0.71437496 1.1164145e-41
0.25873953 -0.5589686 0.71413457 1.1164145e-41
0.26563793 -0.55895442 0.71430767 1.1164145e-41
0.2725023 -0.55894017 0.71417767 1.1164145e-41
0.27941504 -0.55892587 0.71418744 1.1164145e-41
0.28630868 -0.55907762 0.71401685 1.1164145e-41
0.29080901 -0.55890232 0.71410853 1.1164145e-41
0.29430825 -0.55889505 0.71420646 1.1164145e-41
0.2986559 -0.55888605 0.71391135 1.1164145e-41
0.53143394 -0.34350851 0.7150529 2.0298159e-39
0.53085423 -0.33332402 0.71201718 3.043993e-39
0.53354001 -0.33422491 0.71552581 3.043993e-39
0.52408981 -0.32511592 0.71226674 1.5681034e-39
0.52795452 -0.32866594 0.71455461 2.8595975e-39
0.52342153 -0.32031867 0.71417522 2.3986068e-39
0.52440256 -0.32428157 0.71552092 3.043993e-39
0.5239163 -0.31430149 0.71351212 2.7814163e-39
0.52480471 -0.31182343 0.71645606 2.7903986e-39
0.5241673 -0.30914387 0.71155286 2.7860868e-39
0.52509522 -0.30669954 0.71461546 2.7900385e-39
0.52623206 -0.30002472 0.71421653 2.7896798e-39
0.56398082 -0.29869068 0.71721172 3.0443559e-39
0.52797729 -0.29316399 0.71406496 2.7896798e-39
0.52976567 -0.28631884 0.71414137 2.7900385e-39
0.52102339 -0.27839011 0.71135569 6.9276595e-39
0.53094512 -0.28167528 0.71385109 2.8822341e-39
0.53172201 -0.27823958 0.7140004 2.9740696e-39
0.46663147 -0.27098227 0.71424884 2.7857281e-39
0.53283936 -0.27266774 0.71433574 2.7903986e-39
0.54939163 -0.27370369 0.71611047 2.9521561e-39
0.53416353 -0.26590735 0.71430945 2.8822341e-39
0.53525317 -0.25876766 0.71367508 2.9740696e-39
0.53619081 -0.2520698 0.71474862 2.8822341e-39
0.53700542 -0.24495734 0.71387208 2.9740696e-39
0.53776944 -0.23862663 0.71364594 3.1580993e-39
0.53831226 -0.23613007 0.71626282 2.7903986e-39
0.57207668 -0.24033259 0.71336198 2.7857281e-39
0.53870779 -0.23133576 0.71431267 2.9740696e-39
0.53948545 -0.22413543 0.71372241 3.5258001e-39
0.54035801 -0.21739861 0.71447766 2.7896798e-39
0.54118109 -0.21028146 0.71419525 2.7878833e-39
0.54194123 -0.20376258 0.7141462 2.7875232e-39
0.54271871 -0.19659813 0.71392542 2.7857281e-39
0.54349488 -0.18953644 0.71416235 2.7857267e-39
0.5807786 -0.19275413 0.71715409 3.598264e-39
0.54436588 -0.18358128 0.71482348 2.7864456e-39
0.54557317 -0.18137634 0.71195418 2.8675023e-39
0.54712814 -0.17616355 0.71391338 2.7814163e-39
0.54953027 -0.16937606 0.71361661 2.778901e-39
0.5511651 -0.1632953 0.71259212 2.7735116e-39
0.55326086 -0.16014405 0.71395409 2.8693029e-39
0.55657285 -0.157932 0.71247077 3.2291115e-39
0.56168228 -0.15714742 0.71350533 3.5979053e-39
0.56739694 -0.15702145 0.71506977 3.5979053e-39
0.58803195 -0.15004751 0.71075273 2.8822411e-39
0.48560971 -0.094679326 0.71637785 1.1708845e-38
0.4959963 -0.062213518 0.71323007 1.1432257e-38
0.57150275 -0.050599895 0.71644384 1.8807546e-38
0.53796357 -0.023744091 0.71564716 4.5090085e-39
0.45911103 0.20488088 0.7119965 5.9818727e-39
0.46557721 0.20540065 0.7120766 6.2566519e-39
0.45337346 0.21137309 0.71169311 5.6127272e-39
0.45878193 0.21056306 0.71318763 6.1651807e-39
0.46550864 0.21049663 0.71351159 6.4406816e-39
0.47199714 0.21066245 0.71242964 6.5328759e-39
0.44746575 0.21945328 0.71109766 5.0606381e-39
0.4519273 0.21743725 0.71277726 5.6127272e-39
0.45886663 0.21701838 0.71439737 6.3484874e-39
0.4657262 0.21700424 0.7140581 6.6247114e-39
0.47164187 0.21732149 0.71218359 6.7169056e-39
0.4411816 0.22670798 0.71083498 5.1524736e-39
0.4458544 0.22470842 0.71211457 5.796757e-39
0.4521791 0.22407606 0.71387219 5.9807867e-39
0.45914307 0.22422369 0.71454757 6.4406816e-39
0.46577248 0.22382653 0.71316069 6.6247114e-39
0.47027215 0.22217929 0.71170259 6.7169056e-39
0.43967342 0.23190235 0.71179134 5.3365033e-39
0.44480491 0.23100795 0.71315348 6.1644577e-39
0.45204747 0.23105402 0.71407503 6.2566519e-39
0.45899293 0.23101883 0.7140255 6.5325171e-39
0.46470752 0.23093438 0.71183777 6.6247114e-39
0.43857455 0.23815888 0.71242332 5.3365033e-39
0.44480738 0.23803258 0.71396559 6.2566519e-39
0.45148182 0.23775011 0.71425718 6.3488461e-39
0.45846477 0.2379386 0.71325737 6.6247114e-39
0.46392024 0.23608354 0.71113718 6.7169056e-39
0.44022569 0.2440058 0.71208549 4.8766083e-39
0.44477659 0.24511179 0.71313751 5.9807867e-39
0.45153132 0.24480107 0.71310008 6.3488461e-39
0.45754227 0.24307871 0.71238965 6.4406816e-39
0.44756928 0.2493218 0.71177387 5.6127272e-39
0.44959623 0.25003296 0.71157342 5.796757e-39
0.25214276 0.56101704 0.71432298 4.1326169e-39
0.25875494 0.56103075 0.71416867 4.1326169e-39
0.26568073 0.56104499 0.7141372 4.1326169e-39
0.27248341 0.56105912 0.71417052 4.1326169e-39
0.28626782 0.56108761 0.71393299 4.1326169e-39
0.25551057 -0.5823943 0.7240622 1.1164145e-41
0.25307781 -0.57845092 0.72015929 1.1164145e-41
0.25363982 -0.55897915 0.71936029 1.1164145e-41
0.25878453 -0.55896837 0.72092366 1.1164145e-41
0.26555687 -0.55895436 0.72110522 1.1164145e-41
0.27255663 -0.55893987 0.72115642 1.1164145e-41
0.27951592 -0.55892545 0.72101855 1.1164145e-41
0.28633511 -0.55891144 0.72099715 1.1164145e-41
0.29088315 -0.55890203 0.72103351 1.1164145e-41
0.29429954 -0.55889493 0.72120434 1.1164145e-41
0.29855093 -0.55888605 0.72083807 1.1164145e-41
0.28911179 -0.53259635 0.7203964 1.1164145e-41
0.53956288 -0.33817589 0.72032595 2.8599577e-39
0.53537357 -0.33427757 0.71983111 2.8599591e-39
0.52820575 -0.32697096 0.7217418 2.8599577e-39
0.52410078 -0.32028413 0.72027677 2.2142099e-39
0.52458495 -0.32030001 0.72093564 2.8599577e-39
0.52502722 -0.31414735 0.72121942 2.7806974e-39
0.55835605 -0.31526625 0.71963841 2.4908052e-39
0.52593511 -0.3072637 0.72080231 2.7903986e-39
0.52711499 -0.30043375 0.72115785 2.7903986e-39
0.52882814 -0.29321828 0.72096658 2.7903986e-39
0.53051388 -0.28654033 0.72095072 2.7903986e-39
0.52045685 -0.27820849 0.71972924 4.797208e-39
0.53218156 -0.27947757 0.72101969 2.7903986e-39
0.53351218 -0.27254289 0.72104579 2.7903986e-39
0.5359109 -0.25845382 0.72056216 2.7903986e-39
0.53758365 -0.24492958 0.72057933 2.7903986e-39
0.53800088 -0.24052055 0.71907789 2.7903986e-39
0.57774359 -0.16963471 0.7188831 3.8737383e-39
0.57915848 -0.12993026 0.71779281 3.1365544e-39
0.26031852 -0.55896515 0.72635174 1.1164145e-41
