# .PCD v0.7 - Point Cloud Data file format
VERSION 0.7
FIELDS x y z rgb
SIZE 4 4 4 4
TYPE F F F F
COUNT 1 1 1 1
WIDTH 75
HEIGHT 1
VIEWPOINT 0 0 0 1 0 0 0
POINTS 75
DATA ascii
0.54537141 -0.150199 0.77250576 1.3368424e-38
0.23185612 0.60027701 0.77270681 4.1326169e-39
0.30338052 -0.55318648 0.77848309 1.1164145e-41
0.51916903 -0.28095189 0.77886075 2.7860868e-39
0.54323912 -0.27674502 0.77488041 3.3213114e-39
0.59027946 -0.27161735 0.77886701 5.8113543e-39
0.54783022 -0.1514017 0.77761042 6.6389023e-39
0.24086118 0.5609929 0.77282423 4.1326169e-39
0.24551228 0.56100249 0.77557683 4.1326169e-39
0.25185308 0.56101567 0.77623188 4.1326169e-39
0.25863412 0.56102967 0.77629125 4.1326169e-39
0.26550227 0.56104392 0.7762683 4.1326169e-39
0.27248061 0.56105828 0.77630359 4.1326169e-39
0.27936515 0.56107259 0.776097 4.1326169e-39
0.28638297 0.56108707 0.77633828 4.1326169e-39
0.29332474 0.56110144 0.77623278 4.1326169e-39
0.29893321 0.561113 0.7764526 4.1326169e-39
0.2607767 -0.60059792 0.7832551 1.1164145e-41
0.58571416 -0.28869614 0.78212905 4.7968464e-39
0.55355734 -0.13383782 0.78633517 1.2074431e-38
0.32138428 0.55029273 0.78021121 4.1326169e-39
0.24769086 0.56100702 0.78013325 4.1326169e-39
0.25238377 0.56101668 0.78259605 4.1326169e-39
0.25871035 0.56102973 0.78307045 4.1326169e-39
0.26561132 0.56104404 0.7831043 4.1326169e-39
0.27254304 0.56105834 0.78314018 4.1326169e-39
0.27938935 0.56107241 0.78319246 4.1326169e-39
0.28634059 0.56108695 0.78329372 4.1326169e-39
0.29322499 0.56110108 0.78323573 4.1326169e-39
0.29888692 0.56111282 0.78324395 4.1326169e-39
0.30083331 0.58489799 0.78535497 1.1938668e-38
0.25875846 0.52576625 0.78683084 4.1326169e-39
0.25452089 0.56102103 0.78744262 4.1326169e-39
0.25921702 0.56103063 0.78949314 4.1326169e-39
0.26566711 0.5610441 0.78995532 4.1326169e-39
0.27259579 0.56105828 0.7900669 4.1326169e-39
0.27948332 0.56107259 0.79008454 4.1326169e-39
0.28629914 0.56108671 0.79014039 4.1326169e-39
0.29322875 0.56110108 0.79019761 4.1326169e-39
0.29896253 0.56111294 0.7900728 4.1326169e-39
0.25212285 0.56691849 0.78880185 4.1326169e-39
0.26997507 0.57780689 0.791646 4.1326169e-39
0.26315087 0.58050185 0.78827232 4.1326169e-39
0.31074947 0.5867244 0.79203415 4.1326169e-39
0.53126973 -0.26863077 0.7953679 3.0443559e-39
0.58460623 -0.2408084 0.80001247 4.7046494e-39
0.589333 -0.21844825 0.79363602 5.2581945e-39
0.54658061 -0.20047191 0.79470849 3.598264e-39
0.2821542 0.52477479 0.79799491 4.1326169e-39
0.26129246 0.56103492 0.79427338 4.1326169e-39
0.26600716 0.56104463 0.79654551 4.1326169e-39
0.27247664 0.56105804 0.79695529 4.1326169e-39
0.27938119 0.56107229 0.79695678 4.1326169e-39
0.28631458 0.56108665 0.79703528 4.1326169e-39
0.2933262 0.56110114 0.79699624 4.1326169e-39
0.29890642 0.5611127 0.79682958 4.1326169e-39
0.21612178 0.59856707 0.79878527 4.1326169e-39
0.26799375 0.56104869 0.80152816 4.1326169e-39
0.27301949 0.56141281 0.80333865 6.887693e-39
0.27933323 0.56229579 0.8038826 9.2754272e-39
0.28631106 0.56237537 0.80403954 9.8264429e-39
0.29338956 0.56230986 0.80386126 9.3672626e-39
0.29906711 0.56230819 0.80383939 9.1835917e-39
0.2806623 0.56701732 0.80499977 1.4234566e-38
0.28670508 0.56884807 0.80499995 1.4234566e-38
0.29345489 0.56920511 0.80500013 1.4234566e-38
0.29916543 0.5693683 0.80500031 1.4234566e-38
0.28904259 0.57339132 0.80499971 1.4234566e-38
0.29412225 0.5749957 0.80500013 1.4234566e-38
0.29918805 0.57632548 0.80500031 1.4234566e-38
0.30001926 0.58059239 0.80500031 1.4234566e-38
0.31597856 0.5491972 0.80934685 1.166316e-38
0.57340294 -0.18152976 0.81859374 1.475062e-38
0.29282281 0.57106316 0.81801754 1.4234566e-38
0.25753435 0.59699571 0.81988835 7.8978891e-39
